-0.055087,0.087041,0.083164 
-0.042018,0.084737,0.080694 
-0.047463,0.088601,0.085979 
-0.047778,0.088603,0.085982 
-0.048129,0.088604,0.085986 
-0.048519,0.088606,0.085989 
-0.048958,0.088608,0.085994 
-0.049450,0.088611,0.085999 
-0.050002,0.088613,0.086004 
-0.050628,0.088616,0.086010 
-0.042517,0.088525,0.086243 
-0.042530,0.088284,0.086421 
-0.057062,0.086969,0.083237 
-0.054455,0.087213,0.083475 
-0.044470,0.085295,0.080926 
-0.042010,0.084979,0.080573 
-0.042005,0.084889,0.080474 
-0.042172,0.084890,0.080476 
-0.042207,0.084890,0.080476 
-0.057084,0.087160,0.083469 
-0.057088,0.087050,0.083528 
-0.054847,0.087233,0.083457 
-0.053510,0.087240,0.083470 
-0.050379,0.087233,0.084357 
-0.050322,0.087531,0.084265 
-0.050368,0.087263,0.084401 
-0.050297,0.087290,0.084447 
-0.050296,0.087536,0.084276 
-0.045808,0.088259,0.086144 
-0.046008,0.088268,0.086141 
-0.046135,0.088274,0.086140 
-0.046270,0.088280,0.086138 
-0.046416,0.088287,0.086136 
-0.046572,0.088294,0.086134 
-0.046741,0.088302,0.086132 
-0.046923,0.088311,0.086130 
-0.047119,0.088320,0.086127 
-0.047331,0.088330,0.086124 
-0.047560,0.088340,0.086121 
-0.045320,0.088503,0.086005 
-0.045471,0.088510,0.086003 
-0.045578,0.088515,0.086002 
-0.045692,0.088521,0.086001 
-0.045815,0.088526,0.085999 
-0.045947,0.088532,0.085997 
-0.046089,0.088539,0.085996 
-0.046242,0.088546,0.085994 
-0.046406,0.088554,0.085992 
-0.046585,0.088562,0.085989 
-0.047808,0.088352,0.086118 
-0.048077,0.088365,0.086115 
-0.048371,0.088378,0.086111 
-0.048689,0.088393,0.086107 
-0.049036,0.088410,0.086102 
-0.049415,0.088427,0.086097 
-0.049826,0.088447,0.086092 
-0.050277,0.088468,0.086086 
-0.050770,0.088491,0.086080 
-0.051308,0.088516,0.086073 
-0.051899,0.088544,0.086065 
-0.046778,0.088571,0.085987 
-0.046985,0.088581,0.085984 
-0.047211,0.088591,0.085981 
-0.047242,0.087257,0.084623 
-0.047230,0.087505,0.084455 
-0.044052,0.087285,0.084898 
-0.057236,0.088161,0.085175 
-0.052546,0.088575,0.086057 
-0.053249,0.088608,0.086047 
-0.056985,0.086274,0.082388 
-0.053405,0.085627,0.081554 
-0.053400,0.085625,0.081552 
-0.053300,0.085622,0.081553 
-0.053492,0.086982,0.083187 
-0.053446,0.085657,0.081604 
-0.053427,0.085700,0.081681 
-0.053254,0.085650,0.081605 
-0.053399,0.085712,0.081703 
-0.053444,0.086301,0.082688 
-0.053505,0.086745,0.083372 
-0.046649,0.085100,0.081046 
-0.050059,0.085692,0.081907 
-0.050001,0.085952,0.081762 
-0.043381,0.084899,0.080485 
-0.053498,0.086868,0.083276 
-0.042541,0.088828,0.086501 
-0.042543,0.088745,0.086529 
-0.042608,0.088938,0.087273 
-0.044052,0.087288,0.084903 
-0.044048,0.087301,0.084923 
-0.041937,0.084888,0.080474 
-0.040458,0.084360,0.080028 
-0.041710,0.084887,0.080472 
-0.037268,0.084384,0.080298 
-0.037154,0.084342,0.080217 
-0.037098,0.084352,0.080243 
-0.037268,0.084387,0.080304 
-0.037262,0.084402,0.080336 
-0.037439,0.084739,0.080333 
-0.037368,0.084734,0.080329 
-0.037298,0.084730,0.080326 
-0.037195,0.084724,0.080320 
-0.037068,0.084379,0.080302 
-0.036862,0.084705,0.080302 
-0.037095,0.084718,0.080315 
-0.036901,0.084707,0.080304 
-0.037078,0.084401,0.080347 
-0.037108,0.084418,0.080380 
-0.037148,0.084521,0.080133 
-0.037097,0.084540,0.080150 
-0.037061,0.084594,0.080200 
-0.037061,0.084604,0.080210 
-0.037146,0.084678,0.080277 
-0.034131,0.084408,0.080564 
-0.034122,0.084679,0.080436 
-0.030820,0.084631,0.080574 
-0.030800,0.084802,0.080388 
-0.030833,0.084390,0.080753 
-0.030434,0.084799,0.080385 
-0.030711,0.084634,0.080569 
-0.030393,0.084799,0.080385 
-0.030294,0.084798,0.080384 
-0.030696,0.084634,0.080569 
-0.030590,0.084632,0.080570 
-0.030499,0.084630,0.080570 
-0.027183,0.084774,0.080360 
-0.027196,0.084566,0.080585 
-0.027214,0.084346,0.080825 
-0.027207,0.084429,0.080734 
-0.042600,0.089059,0.087175 
-0.028885,0.089278,0.088249 
-0.051845,0.088574,0.102522 
-0.050741,0.088580,0.102543 
-0.051800,0.088570,0.102521 
-0.049062,0.088360,0.102467 
-0.046152,0.088511,0.102584 
-0.045112,0.088365,0.102533 
-0.042149,0.088524,0.102655 
-0.042210,0.088524,0.102654 
-0.042202,0.088429,0.102610 
-0.041802,0.088521,0.102659 
-0.052222,0.088395,0.102831 
-0.052296,0.088430,0.102794 
-0.052302,0.088431,0.102794 
-0.052262,0.088421,0.102801 
-0.050442,0.088779,0.102116 
-0.049045,0.088784,0.102105 
-0.049099,0.088052,0.102918 
-0.049029,0.088641,0.102056 
-0.046195,0.088204,0.103137 
-0.045954,0.088549,0.102605 
-0.045899,0.088548,0.102606 
-0.045116,0.088543,0.102616 
-0.045161,0.087878,0.103120 
-0.046113,0.088789,0.102081 
-0.045736,0.088794,0.102079 
-0.045680,0.088794,0.102079 
-0.045071,0.088631,0.102018 
-0.046114,0.088606,0.102018 
-0.045072,0.088758,0.102061 
-0.042258,0.087962,0.103294 
-0.040979,0.087961,0.103519 
-0.042177,0.087939,0.103340 
-0.052830,0.085186,0.107708 
-0.052788,0.085186,0.107707 
-0.049482,0.085173,0.107666 
-0.048352,0.085107,0.107693 
-0.052223,0.086965,0.105422 
-0.052473,0.086967,0.105419 
-0.048383,0.084834,0.108056 
-0.046914,0.084816,0.108074 
-0.046894,0.084816,0.108074 
-0.046797,0.084815,0.108075 
-0.045942,0.084804,0.108085 
-0.045543,0.085007,0.107854 
-0.041579,0.087254,0.105001 
-0.041219,0.086950,0.105435 
-0.041198,0.086957,0.105425 
-0.041257,0.086903,0.105503 
-0.041257,0.086899,0.105508 
-0.041312,0.086862,0.105561 
-0.041472,0.086863,0.105559 
-0.041199,0.086734,0.105300 
-0.041204,0.086731,0.105303 
-0.041229,0.086697,0.105350 
-0.042441,0.086893,0.105388 
-0.041096,0.086756,0.105287 
-0.041070,0.086751,0.105300 
-0.039165,0.087259,0.104983 
-0.042602,0.085079,0.107514 
-0.041337,0.085232,0.107655 
-0.042383,0.085228,0.107660 
-0.041312,0.085174,0.107598 
-0.042631,0.084843,0.107859 
-0.042596,0.084841,0.107868 
-0.042553,0.084823,0.107901 
-0.043887,0.084759,0.107820 
-0.042737,0.084784,0.107931 
-0.042701,0.084740,0.108002 
-0.042762,0.084765,0.108123 
-0.042700,0.084764,0.108123 
-0.042697,0.084738,0.108005 
-0.042538,0.084799,0.107939 
-0.042598,0.084763,0.108125 
-0.042581,0.084745,0.108012 
-0.052449,0.088393,0.102877 
-0.052822,0.085274,0.107442 
-0.052406,0.088370,0.102902 
-0.052399,0.088359,0.102916 
-0.052218,0.088344,0.102904 
-0.052600,0.087132,0.104722 
-0.052460,0.087115,0.104721 
-0.052432,0.087323,0.104865 
-0.049093,0.088238,0.103176 
-0.049086,0.088290,0.103081 
-0.052497,0.086800,0.105288 
-0.049691,0.086797,0.105342 
-0.052503,0.086752,0.105251 
-0.052475,0.086989,0.104948 
-0.052651,0.085406,0.107425 
-0.052781,0.085269,0.107442 
-0.052669,0.085312,0.107359 
-0.052755,0.085224,0.107502 
-0.052697,0.085201,0.107523 
-0.052684,0.085200,0.107523 
-0.052629,0.085300,0.107369 
-0.052598,0.085279,0.107393 
-0.052592,0.085273,0.107401 
-0.052600,0.085217,0.107483 
-0.052832,0.084889,0.108004 
-0.052798,0.084889,0.108004 
-0.050245,0.084857,0.108035 
-0.049261,0.084845,0.108046 
-0.043532,0.088112,0.103414 
-0.043543,0.088039,0.103549 
-0.042364,0.087903,0.103366 
-0.042364,0.087899,0.103371 
-0.042357,0.087879,0.103402 
-0.042298,0.087851,0.103452 
-0.042371,0.088050,0.103530 
-0.042297,0.088025,0.103576 
-0.042229,0.087961,0.103300 
-0.042169,0.087897,0.103404 
-0.043395,0.087112,0.104940 
-0.042118,0.087252,0.105005 
-0.043147,0.087135,0.104950 
-0.042682,0.087188,0.104974 
-0.041192,0.086652,0.105424 
-0.040618,0.087258,0.104995 
-0.040598,0.087258,0.104995 
-0.040498,0.087258,0.104995 
-0.039673,0.086846,0.105582 
-0.039242,0.086842,0.105587 
-0.042424,0.086588,0.105325 
-0.042450,0.086815,0.105502 
-0.045363,0.084797,0.108092 
-0.043915,0.084779,0.108109 
-0.042814,0.084766,0.108122 
-0.050847,0.067083,0.113964 
0.001178,0.085553,0.081342 
-0.010058,0.086921,0.083098 
-0.010066,0.086926,0.083104 
-0.010084,0.086989,0.083201 
-0.010067,0.087002,0.083221 
-0.009999,0.086908,0.083080 
-0.009927,0.086921,0.083103 
-0.009900,0.086944,0.083139 
-0.010000,0.087017,0.083248 
-0.006694,0.086877,0.083165 
-0.003719,0.086761,0.083107 
-0.003705,0.086755,0.083097 
-0.003699,0.086753,0.083094 
-0.003747,0.086802,0.083168 
-0.003736,0.086824,0.083203 
-0.003600,0.086749,0.083093 
-0.003584,0.086754,0.083102 
-0.003699,0.086846,0.083237 
-0.003631,0.087423,0.084002 
-0.000208,0.088374,0.085514 
-0.000177,0.088374,0.085514 
-0.000346,0.086712,0.083168 
0.009010,0.084917,0.080573 
0.012211,0.084834,0.080575 
0.012316,0.084784,0.080487 
0.012363,0.084790,0.080500 
0.012216,0.084848,0.080601 
0.012302,0.084880,0.080662 
0.012391,0.084801,0.080523 
0.012403,0.084811,0.080541 
0.012406,0.084844,0.080601 
0.015931,0.085171,0.081348 
0.015938,0.085431,0.081198 
0.002016,0.088363,0.085493 
0.002748,0.088360,0.085485 
0.002743,0.088295,0.085514 
0.005944,0.088228,0.085549 
0.005972,0.088269,0.085603 
0.006003,0.088282,0.085621 
0.002370,0.086675,0.082652 
0.002612,0.086902,0.083028 
0.006193,0.088343,0.085451 
0.006144,0.088222,0.085547 
0.006102,0.088274,0.085614 
0.009091,0.088147,0.085550 
0.012292,0.088068,0.085556 
0.013882,0.085649,0.081468 
0.012302,0.088089,0.085584 
0.012316,0.088102,0.085602 
0.012402,0.088122,0.085631 
0.012489,0.088073,0.085571 
0.012472,0.088097,0.085601 
0.016007,0.088296,0.085355 
0.016002,0.087971,0.085497 
0.012602,0.088311,0.085389 
0.012591,0.088311,0.085389 
0.012499,0.088312,0.085390 
0.016006,0.088115,0.085434 
-0.010009,0.087484,0.083879 
-0.009999,0.087484,0.083879 
-0.006680,0.087412,0.083959 
-0.006676,0.087569,0.084193 
-0.010694,0.086759,0.082768 
-0.010600,0.086758,0.082767 
-0.003629,0.087490,0.084194 
-0.000330,0.087329,0.084083 
-0.000329,0.087405,0.084196 
-0.000299,0.088329,0.085466 
-0.000305,0.088329,0.085466 
0.000714,0.085565,0.081341 
0.002724,0.087554,0.083999 
0.002718,0.087326,0.084197 
0.006020,0.087249,0.084206 
0.008859,0.087478,0.084117 
0.006049,0.088165,0.085469 
0.006102,0.088175,0.085484 
0.006124,0.088188,0.085502 
0.006145,0.088296,0.085478 
0.009074,0.087475,0.084121 
0.002405,0.086674,0.082652 
0.013922,0.085645,0.081462 
0.009763,0.088326,0.085416 
0.012299,0.088314,0.085391 
0.012295,0.088175,0.085466 
0.012296,0.088210,0.085448 
0.000058,0.086459,0.106079 
0.002965,0.086395,0.106090 
0.004259,0.086409,0.106125 
0.000082,0.087413,0.104743 
0.000053,0.086285,0.106325 
0.001705,0.086233,0.106318 
0.003022,0.087424,0.104725 
0.002989,0.087424,0.104725 
0.002989,0.087381,0.104702 
0.004231,0.087428,0.104718 
0.003767,0.087427,0.104720 
0.002962,0.086281,0.106252 
0.003003,0.086275,0.106260 
0.003051,0.086248,0.106300 
0.002860,0.086223,0.106331 
0.002869,0.086198,0.106366 
0.002900,0.086176,0.106398 
0.002905,0.086174,0.106401 
0.003051,0.086200,0.106368 
0.003001,0.086170,0.106408 
0.004255,0.086237,0.106367 
0.000913,0.068675,0.114102 
-0.001289,0.068628,0.114056 
-0.001256,0.068598,0.114054 
0.002676,0.068665,0.114077 
0.002701,0.068680,0.114079 
0.002801,0.068668,0.114083 
0.002840,0.068586,0.114082 
0.001089,0.068678,0.114102 
0.000913,0.068634,0.114030 
0.001701,0.068615,0.114043 
0.002641,0.068600,0.114073 
0.002697,0.068499,0.114072 
0.002703,0.068496,0.114072 
-0.003545,0.070399,0.114245 
-0.002328,0.070392,0.114164 
-0.002320,0.070409,0.114165 
-0.002575,0.070399,0.114245 
-0.002211,0.070513,0.114163 
-0.002200,0.070511,0.114162 
-0.002166,0.070497,0.114160 
-0.002045,0.070399,0.114245 
-0.001160,0.070389,0.114115 
-0.001155,0.070399,0.114245 
-0.002324,0.070399,0.114245 
-0.002116,0.070399,0.114245 
-0.002266,0.068709,0.114100 
0.000954,0.070339,0.114091 
-0.002299,0.070351,0.114161 
-0.002199,0.070316,0.114155 
-0.001276,0.068757,0.114060 
-0.001196,0.068784,0.114058 
-0.001302,0.068715,0.114059 
-0.001306,0.068696,0.114059 
-0.001107,0.068695,0.114053 
-0.000078,0.068658,0.114041 
0.001749,0.070419,0.114107 
0.001801,0.070403,0.114107 
0.001807,0.070399,0.114107 
0.001808,0.070399,0.114245 
0.002789,0.070390,0.114141 
0.001798,0.070399,0.114245 
0.001923,0.070399,0.114245 
0.001647,0.070322,0.114101 
0.001647,0.070322,0.114101 
0.001647,0.070315,0.114101 
0.001647,0.070309,0.114101 
0.001648,0.070303,0.114100 
0.001649,0.070297,0.114100 
0.001651,0.070291,0.114100 
0.001701,0.070230,0.114099 
0.001647,0.070315,0.114101 
0.001647,0.070309,0.114101 
0.001648,0.070303,0.114100 
0.001844,0.070295,0.114105 
0.001762,0.070221,0.114100 
0.002787,0.070293,0.114138 
0.003047,0.068722,0.114101 
0.010005,0.051307,0.100108 
-0.049301,0.051304,0.100036 
-0.049348,0.051404,0.100107 
-0.049348,0.051328,0.100107 
-0.035170,0.051403,0.100107 
-0.026000,0.051403,0.100107 
-0.035170,0.051322,0.100107 
-0.051345,0.051403,0.088568 
-0.035170,0.051403,0.088568 
-0.035170,0.051303,0.088568 
-0.031307,0.051403,0.088568 
-0.031307,0.051303,0.088568 
-0.018688,0.051403,0.100107 
-0.011376,0.051403,0.100107 
-0.026000,0.051318,0.100107 
-0.004063,0.051403,0.100108 
-0.018688,0.051314,0.100107 
-0.031207,0.051469,0.087944 
-0.031359,0.051437,0.088037 
-0.028005,0.051303,0.088568 
-0.028005,0.051403,0.088568 
-0.028393,0.051434,0.088042 
-0.026000,0.051403,0.088568 
-0.026000,0.051303,0.088568 
-0.023995,0.051303,0.088568 
-0.024065,0.051403,0.088142 
-0.023995,0.051403,0.088171 
-0.023895,0.051422,0.088071 
-0.023908,0.051439,0.088021 
-0.022993,0.051403,0.088914 
-0.020693,0.051402,0.088568 
-0.018688,0.051402,0.088568 
-0.020693,0.051302,0.088568 
-0.018688,0.051302,0.088568 
-0.016682,0.051302,0.088568 
-0.016682,0.051402,0.088568 
-0.016732,0.051402,0.088158 
-0.016682,0.051402,0.088171 
-0.016582,0.051419,0.088071 
-0.016610,0.051443,0.087999 
0.006060,0.051402,0.100108 
-0.011376,0.051311,0.100107 
0.007212,0.051401,0.100124 
-0.004063,0.051308,0.100108 
0.008777,0.051399,0.100147 
-0.015776,0.051402,0.088831 
-0.009447,0.051379,0.088749 
-0.013380,0.051302,0.088568 
-0.013380,0.051402,0.088568 
-0.011375,0.051402,0.088568 
-0.011375,0.051302,0.088568 
-0.009370,0.051302,0.088568 
-0.009441,0.051402,0.088142 
-0.009396,0.051402,0.088168 
-0.009370,0.051402,0.088756 
-0.009370,0.051402,0.088568 
-0.009467,0.051406,0.088097 
-0.006072,0.051415,0.088067 
-0.006806,0.051380,0.088719 
-0.006089,0.051323,0.088691 
-0.006068,0.051402,0.088568 
-0.004063,0.051402,0.088568 
-0.002058,0.051302,0.088569 
-0.004063,0.051302,0.088568 
-0.006068,0.051302,0.088568 
-0.001958,0.051412,0.088071 
-0.002084,0.051402,0.088168 
-0.002108,0.051402,0.088158 
-0.002158,0.051412,0.088071 
0.001244,0.051402,0.088569 
0.001244,0.051302,0.088569 
0.003900,0.051302,0.088569 
0.005257,0.051402,0.088097 
0.005353,0.051306,0.088553 
0.005283,0.051402,0.088142 
0.005304,0.051402,0.088158 
0.005453,0.051408,0.088072 
0.008656,0.051397,0.088546 
0.008656,0.051402,0.088548 
0.008656,0.051260,0.088499 
0.009784,0.051263,0.088487 
0.016039,0.051311,0.100108 
0.048066,0.051393,0.100296 
0.023459,0.051314,0.100108 
0.028370,0.051317,0.100108 
0.023280,0.051401,0.088569 
0.023378,0.051306,0.088345 
0.023459,0.051306,0.088344 
0.027246,0.051318,0.088304 
0.025644,0.051313,0.088321 
0.025523,0.051312,0.088322 
0.025402,0.051312,0.088323 
0.025291,0.051312,0.088325 
0.025195,0.051311,0.088326 
0.027290,0.051301,0.088569 
0.034682,0.051320,0.100108 
0.040168,0.051323,0.100108 
0.048502,0.051327,0.100108 
0.048502,0.051402,0.100108 
0.048461,0.051302,0.100013 
0.030592,0.051401,0.088569 
0.033161,0.051336,0.088242 
0.034546,0.051340,0.088227 
0.033658,0.051338,0.088237 
0.033488,0.051337,0.088239 
0.033319,0.051337,0.088240 
0.034602,0.051301,0.088569 
0.034602,0.051341,0.088227 
0.037663,0.051401,0.090660 
0.034394,0.051319,0.088313 
0.037904,0.051401,0.088569 
0.037904,0.051301,0.088569 
0.040168,0.051301,0.088569 
0.041914,0.051301,0.088569 
0.041864,0.051393,0.088158 
0.041888,0.051401,0.088168 
0.041914,0.051401,0.088171 
0.045216,0.051401,0.088569 
0.045216,0.051301,0.088569 
0.052849,0.051401,0.088569 
0.052849,0.051301,0.088569 
0.022164,0.051388,0.100340 
0.010466,0.051302,0.088493 
0.010460,0.051265,0.088480 
0.010392,0.051302,0.088493 
0.010005,0.051264,0.088485 
0.010005,0.051302,0.088498 
0.012658,0.051402,0.088502 
0.012649,0.051302,0.088467 
0.012595,0.051402,0.088142 
0.012616,0.051402,0.088158 
0.012566,0.051405,0.088071 
0.012752,0.051422,0.088021 
0.015242,0.051324,0.088445 
0.015968,0.051282,0.088422 
0.015968,0.051379,0.088455 
0.016019,0.051302,0.088428 
0.015968,0.051402,0.088463 
0.016018,0.051283,0.088422 
0.017463,0.051302,0.088412 
0.017384,0.051302,0.088413 
0.017231,0.051302,0.088414 
0.017168,0.051302,0.088415 
0.017079,0.051302,0.088416 
0.019878,0.051402,0.088071 
0.020075,0.051410,0.088045 
0.020492,0.051402,0.088411 
0.019959,0.051402,0.088417 
0.019947,0.051302,0.088383 
0.019907,0.051402,0.088142 
0.019891,0.051402,0.088121 
0.019907,0.051425,0.088001 
0.023280,0.051401,0.088071 
0.016575,0.051302,0.088422 
0.023280,0.051360,0.088365 
0.023280,0.051401,0.088379 
0.027190,0.051401,0.088071 
0.027261,0.051401,0.088333 
0.027219,0.051401,0.088142 
0.027390,0.051401,0.088071 
0.028370,0.051401,0.088071 
0.030592,0.051401,0.088071 
0.030592,0.051342,0.088274 
0.030592,0.051401,0.088294 
0.034502,0.051401,0.088071 
0.034531,0.051401,0.088142 
0.034602,0.051401,0.088171 
0.034702,0.051401,0.088071 
0.034663,0.051401,0.088247 
0.037904,0.051401,0.088071 
0.037904,0.051401,0.088209 
0.038429,0.051353,0.088187 
0.040168,0.051358,0.088168 
0.041814,0.051401,0.088071 
0.042014,0.051401,0.088071 
0.045216,0.051401,0.088071 
0.045216,0.051401,0.088125 
0.045797,0.051376,0.088109 
0.052802,0.051401,0.088037 
0.041961,0.086065,0.106609 
0.043410,0.087510,0.104466 
0.043685,0.087581,0.104472 
0.043685,0.085574,0.107267 
0.044773,0.085578,0.107262 
0.044805,0.085578,0.107262 
0.044902,0.085578,0.107262 
0.046490,0.085585,0.107255 
0.045945,0.085583,0.107257 
0.044666,0.087521,0.104421 
0.044880,0.085957,0.106591 
0.045964,0.087532,0.104418 
0.046181,0.085952,0.106612 
0.048177,0.085592,0.107247 
0.043673,0.085591,0.107140 
0.044662,0.087550,0.104371 
0.045872,0.087651,0.104242 
0.045904,0.087667,0.104221 
0.045853,0.087608,0.104300 
0.045856,0.087598,0.104315 
0.045901,0.087566,0.104361 
0.045887,0.087589,0.104458 
0.046005,0.087667,0.104223 
0.044923,0.085689,0.106964 
0.045001,0.085669,0.106992 
0.045008,0.085663,0.107000 
0.044825,0.085627,0.107052 
0.044841,0.085599,0.107090 
0.044853,0.085591,0.107102 
0.044912,0.085573,0.107126 
0.045001,0.085593,0.107098 
0.046215,0.085697,0.106966 
0.048142,0.085845,0.106883 
0.047815,0.066972,0.113869 
0.046734,0.066968,0.113922 
0.046696,0.066968,0.113923 
0.049808,0.066966,0.113899 
0.046600,0.066968,0.113924 
0.047790,0.070401,0.114243 
0.048529,0.070401,0.114243 
0.047816,0.070401,0.114243 
0.047921,0.070401,0.114243 
0.048001,0.070401,0.114243 
0.048131,0.070401,0.114243 
0.048220,0.070401,0.114243 
0.048307,0.070401,0.114243 
0.048428,0.070401,0.114243 
0.050006,0.070401,0.114243 
0.047793,0.069704,0.114123 
0.047819,0.066965,0.113945 
0.048675,0.066964,0.113945 
0.047927,0.066965,0.113945 
0.048016,0.066965,0.113945 
0.048112,0.066965,0.113945 
0.048214,0.066964,0.113945 
0.048316,0.066964,0.113945 
0.048417,0.066964,0.113945 
0.048513,0.066964,0.113945 
0.050007,0.069749,0.114167 
0.049752,0.066963,0.113945 
0.049806,0.066962,0.113945 
0.052330,0.070996,0.114096 
0.052476,0.070995,0.114126 
0.052620,0.070996,0.114167 
0.052217,0.071007,0.114193 
0.048932,0.072261,0.114060 
0.045006,0.071164,0.114180 
0.044994,0.071154,0.114061 
0.045359,0.071156,0.114180 
0.046034,0.071126,0.114002 
0.046043,0.071141,0.114182 
0.048942,0.071057,0.113948 
0.049001,0.071077,0.114187 
0.049648,0.071063,0.114188 
0.049704,0.071062,0.114188 
0.049800,0.071059,0.114188 
0.050944,0.071035,0.114190 
0.052168,0.071008,0.114193 
0.042137,0.069049,0.114128 
0.042201,0.068997,0.114116 
0.044221,0.068989,0.113916 
0.042127,0.066972,0.113938 
0.044248,0.065702,0.113610 
0.052916,0.068345,0.114039 
0.045980,0.069047,0.114114 
0.050332,0.069755,0.114185 
0.050298,0.069754,0.114184 
0.049798,0.069746,0.114153 
0.045007,0.069001,0.113861 
0.045960,0.068988,0.114109 
0.045401,0.066968,0.113946 
0.045029,0.066267,0.113607 
0.046068,0.066304,0.113554 
0.045039,0.065813,0.113564 
0.045085,0.065798,0.113560 
0.045101,0.065787,0.113558 
0.044934,0.065712,0.113561 
0.044934,0.065699,0.113560 
0.045002,0.065619,0.113548 
0.045132,0.065699,0.113548 
0.046073,0.065727,0.113500 
0.048747,0.065753,0.113453 
0.048973,0.066310,0.113763 
0.048975,0.066377,0.113513 
0.048880,0.065754,0.113454 
0.048900,0.065695,0.113449 
0.048904,0.065690,0.113448 
0.048979,0.065854,0.113464 
0.049003,0.065851,0.113464 
0.049005,0.065658,0.113446 
0.049070,0.065798,0.113460 
0.049530,0.066317,0.113781 
0.050107,0.066328,0.113784 
0.050528,0.066337,0.113786 
0.051030,0.068356,0.113761 
0.052203,0.068358,0.113834 
0.052351,0.068358,0.113851 
0.052498,0.068357,0.113880 
0.052641,0.068354,0.113922 
0.052781,0.068350,0.113974 
0.051046,0.066403,0.113579 
0.052764,0.070395,0.114165 
0.052899,0.070400,0.114230 
0.044207,0.070688,0.114074 
0.043860,0.070388,0.114081 
0.043891,0.070415,0.114080 
0.042158,0.069576,0.114174 
0.052637,0.070391,0.114116 
0.052910,0.070401,0.114237 
0.044997,0.070799,0.114028 
0.045003,0.070799,0.114027 
0.044898,0.070698,0.114025 
0.044901,0.070674,0.114023 
0.044890,0.070401,0.114243 
0.045098,0.070698,0.114012 
0.044910,0.070401,0.114243 
0.045000,0.070401,0.114243 
0.045109,0.070401,0.114243 
0.046037,0.070713,0.113964 
0.046052,0.070442,0.114240 
0.046050,0.070689,0.114219 
0.048944,0.070841,0.113928 
0.048954,0.071078,0.114187 
0.049002,0.070822,0.113927 
0.049029,0.070795,0.113925 
0.049074,0.070701,0.114218 
0.049500,0.070398,0.114209 
0.052912,0.069812,0.114180 
0.046007,0.069661,0.114169 
0.049492,0.070404,0.114210 
0.045035,0.066989,0.113862 
0.046070,0.067004,0.113798 
0.045023,0.067036,0.113678 
0.046076,0.066974,0.113917 
0.046062,0.067049,0.113623 
0.048968,0.067010,0.113762 
0.049371,0.066313,0.113780 
0.049404,0.066314,0.113781 
0.050015,0.066973,0.113901 
0.050398,0.066970,0.113914 
0.050660,0.066967,0.113921 
0.051041,0.067038,0.113638 
0.050606,0.066338,0.113787 
0.050732,0.066967,0.113924 
0.051028,0.066972,0.113899 
-0.055691,0.051302,0.099143 
-0.055426,0.050981,0.099004 
-0.056482,0.051302,0.095662 
-0.056233,0.051302,0.092822 
-0.055949,0.051302,0.089576 
-0.021303,0.051302,0.099093 
-0.021202,0.051302,0.099202 
-0.021393,0.051302,0.098975 
-0.021093,0.051302,0.099302 
-0.020975,0.051302,0.099393 
-0.020850,0.051302,0.099472 
-0.020719,0.051302,0.099541 
-0.020582,0.051302,0.099597 
-0.020440,0.051302,0.099642 
-0.021473,0.051302,0.098850 
-0.021541,0.051302,0.098718 
-0.021598,0.051302,0.098581 
-0.020296,0.051302,0.099674 
-0.020142,0.051213,0.099802 
-0.019847,0.051214,0.099806 
-0.019985,0.051214,0.099804 
-0.019852,0.051302,0.099694 
-0.019705,0.051302,0.099674 
-0.019560,0.051302,0.099642 
-0.019419,0.051302,0.099597 
-0.019282,0.051302,0.099541 
-0.019150,0.051302,0.099472 
-0.019025,0.051302,0.099393 
-0.018908,0.051302,0.099302 
-0.018798,0.051302,0.099202 
-0.018698,0.051302,0.099093 
-0.018608,0.051302,0.098975 
-0.018528,0.051302,0.098850 
-0.020582,0.051302,0.096403 
-0.020440,0.051302,0.096358 
-0.020296,0.051302,0.096326 
-0.020719,0.051019,0.096459 
-0.020149,0.051302,0.096306 
-0.020000,0.051302,0.096300 
-0.019852,0.051302,0.096306 
-0.019705,0.051302,0.096326 
-0.019560,0.051302,0.096358 
-0.019419,0.051302,0.096403 
-0.019288,0.051248,0.096457 
-0.019207,0.050784,0.096498 
-0.018460,0.051302,0.098718 
-0.018403,0.051302,0.098581 
-0.020000,0.051302,0.099700 
-0.055097,0.051302,0.099991 
-0.055412,0.051302,0.099580 
-0.055609,0.051302,0.099271 
-0.055931,0.051302,0.098684 
-0.056131,0.051302,0.098206 
-0.032343,0.051165,0.099646 
-0.056289,0.051302,0.097712 
-0.056404,0.051302,0.097207 
-0.056474,0.051302,0.096693 
-0.056500,0.051302,0.096176 
-0.056491,0.051302,0.095934 
-0.056289,0.051302,0.097712 
-0.056370,0.050463,0.095734 
-0.055914,0.051060,0.089175 
-0.056227,0.051302,0.092753 
-0.056211,0.051302,0.092566 
-0.055922,0.051302,0.089258 
-0.046604,0.051089,0.089077 
-0.035908,0.051123,0.088965 
-0.031039,0.051170,0.099663 
-0.029353,0.051177,0.099684 
-0.027764,0.051183,0.099705 
-0.026367,0.051188,0.099723 
-0.025259,0.051193,0.099737 
-0.024528,0.051196,0.099746 
-0.021718,0.050912,0.098683 
-0.021642,0.051302,0.098440 
-0.021846,0.050913,0.098684 
-0.021675,0.051302,0.098295 
-0.021694,0.051302,0.098148 
-0.021700,0.051302,0.098000 
-0.021694,0.051302,0.097852 
-0.021675,0.051302,0.097705 
-0.021642,0.051302,0.097560 
-0.021598,0.051302,0.097419 
-0.021541,0.051302,0.097282 
-0.021473,0.051302,0.097150 
-0.021393,0.051302,0.097025 
-0.021303,0.051302,0.096907 
-0.021760,0.050546,0.096488 
-0.021483,0.050547,0.096491 
-0.021249,0.050547,0.096494 
-0.021046,0.050547,0.096497 
-0.021678,0.050546,0.096489 
-0.021179,0.050547,0.096495 
-0.020980,0.050547,0.096497 
-0.020865,0.050548,0.096499 
-0.019080,0.050550,0.096520 
-0.018890,0.050551,0.096523 
-0.018674,0.050551,0.096525 
-0.019146,0.050550,0.096519 
-0.018971,0.050550,0.096522 
-0.018774,0.050551,0.096524 
-0.018528,0.051302,0.097150 
-0.018608,0.051302,0.097025 
-0.018698,0.051302,0.096907 
-0.018422,0.050551,0.096528 
-0.018286,0.050552,0.096530 
-0.018550,0.050551,0.096527 
-0.018237,0.050905,0.098650 
-0.018358,0.051302,0.098440 
-0.018028,0.050905,0.098648 
-0.018326,0.051302,0.098295 
-0.018307,0.051302,0.098148 
-0.018300,0.051302,0.098000 
-0.018307,0.051302,0.097852 
-0.018326,0.051302,0.097705 
-0.018358,0.051302,0.097560 
-0.018403,0.051302,0.097419 
-0.018460,0.051302,0.097282 
-0.024235,0.051197,0.099750 
-0.031136,0.051138,0.088915 
-0.031072,0.051138,0.088914 
-0.030985,0.051138,0.088913 
-0.030863,0.051138,0.088912 
-0.030790,0.051139,0.088911 
-0.030620,0.051139,0.088910 
-0.030524,0.051140,0.088909 
-0.030422,0.051140,0.088907 
-0.030314,0.051140,0.088906 
-0.030202,0.051141,0.088905 
-0.030085,0.051141,0.088904 
-0.029966,0.051141,0.088903 
-0.029844,0.051142,0.088901 
-0.016858,0.051182,0.088765 
-0.029722,0.051142,0.088900 
-0.025553,0.051155,0.088856 
-0.025419,0.051155,0.088855 
-0.025283,0.051156,0.088854 
-0.025146,0.051156,0.088852 
-0.025010,0.051157,0.088851 
-0.024876,0.051157,0.088849 
-0.024745,0.051158,0.088848 
-0.024618,0.051158,0.088847 
-0.016287,0.051184,0.088759 
-0.016167,0.051184,0.088758 
-0.016744,0.051183,0.088764 
-0.016687,0.051183,0.088763 
-0.016580,0.051183,0.088762 
-0.016486,0.051183,0.088761 
-0.016042,0.051185,0.088757 
-0.016375,0.051184,0.088760 
0.018907,0.051302,0.099302 
0.019025,0.051302,0.099392 
0.019150,0.051302,0.099472 
0.019281,0.051302,0.099541 
0.019418,0.051302,0.099597 
0.019560,0.051302,0.099642 
0.019704,0.051302,0.099674 
0.019851,0.051302,0.099693 
0.020148,0.051302,0.099693 
0.020295,0.051302,0.099674 
0.019704,0.051302,0.099674 
0.020000,0.051302,0.099700 
0.018697,0.051302,0.099093 
0.018798,0.051302,0.099202 
0.018607,0.051302,0.098975 
0.018527,0.051302,0.098850 
0.018607,0.051302,0.098975 
0.018459,0.051302,0.098718 
0.018402,0.051302,0.098581 
0.018358,0.051302,0.098440 
0.018527,0.051302,0.098850 
0.018325,0.051302,0.098295 
0.018798,0.051302,0.096798 
0.018907,0.051302,0.096698 
0.019025,0.051302,0.096607 
0.019150,0.051302,0.096528 
0.018697,0.051302,0.096907 
0.019281,0.051302,0.096459 
0.019418,0.051302,0.096402 
0.019560,0.051302,0.096358 
0.019704,0.051302,0.096326 
0.019851,0.051302,0.096306 
0.020000,0.051302,0.096300 
0.020148,0.051302,0.096306 
0.020148,0.051302,0.096306 
0.020148,0.051302,0.096306 
0.020295,0.051302,0.096326 
0.020440,0.051302,0.099642 
0.020581,0.051302,0.099597 
0.020718,0.051302,0.099541 
0.020850,0.051302,0.099472 
0.020440,0.051302,0.099642 
0.020718,0.051302,0.099541 
0.020975,0.051302,0.099392 
0.021092,0.051302,0.099302 
0.021202,0.051302,0.099202 
0.021302,0.051302,0.099093 
0.021392,0.051302,0.098975 
0.020850,0.051302,0.099472 
0.020975,0.051302,0.099392 
0.021472,0.051302,0.098850 
0.021540,0.051302,0.098718 
0.021597,0.051302,0.098581 
0.021642,0.051302,0.098440 
0.021674,0.051302,0.098295 
0.020440,0.051302,0.096358 
0.020581,0.051302,0.096402 
0.020718,0.051302,0.096459 
0.020718,0.051302,0.096459 
0.020850,0.051302,0.096528 
0.020850,0.051302,0.096528 
0.020975,0.051302,0.096607 
0.021302,0.051302,0.096907 
0.021092,0.051302,0.096698 
0.021202,0.051302,0.096798 
0.021361,0.050885,0.096984 
0.024292,0.050799,0.090354 
0.024166,0.050799,0.090353 
0.024036,0.050800,0.090351 
0.023954,0.050800,0.090351 
0.023863,0.050800,0.090350 
0.023763,0.050800,0.090349 
0.023655,0.050800,0.090347 
0.023539,0.050801,0.090346 
0.023153,0.050802,0.090342 
0.023016,0.050802,0.090341 
0.023287,0.050801,0.090343 
0.023416,0.050801,0.090345 
0.022593,0.050803,0.090336 
0.022453,0.050803,0.090334 
0.022735,0.050803,0.090337 
0.022876,0.050802,0.090339 
0.022876,0.050802,0.090339 
0.021227,0.050806,0.090321 
0.021090,0.050806,0.090320 
0.021365,0.050806,0.090323 
0.020440,0.051302,0.099642 
0.020718,0.051302,0.099541 
0.020850,0.051302,0.099472 
0.020975,0.051302,0.099392 
0.055411,0.051302,0.099579 
0.055690,0.051302,0.099142 
0.056013,0.050754,0.097943 
0.055749,0.050754,0.097945 
0.055951,0.050754,0.097944 
0.055848,0.050754,0.097944 
0.055931,0.051302,0.098683 
0.056130,0.051302,0.098205 
0.056262,0.051302,0.097794 
0.056403,0.051302,0.097206 
0.010006,0.051311,0.100111 
-0.049289,0.051302,0.100023 
-0.049347,0.051402,0.100111 
-0.049347,0.051332,0.100111 
-0.035169,0.051402,0.100111 
-0.025999,0.051402,0.100111 
-0.035169,0.051326,0.100111 
-0.051344,0.051402,0.088572 
-0.035170,0.051402,0.088572 
-0.035170,0.051302,0.088572 
-0.031306,0.051402,0.088572 
-0.031306,0.051302,0.088572 
-0.018687,0.051402,0.100111 
-0.011375,0.051402,0.100111 
-0.025999,0.051322,0.100111 
-0.004063,0.051402,0.100111 
-0.018687,0.051318,0.100111 
-0.031206,0.051470,0.087947 
-0.031359,0.051438,0.088041 
-0.028004,0.051302,0.088572 
-0.028004,0.051402,0.088572 
-0.028393,0.051435,0.088045 
-0.025999,0.051402,0.088572 
-0.025999,0.051302,0.088572 
-0.023994,0.051302,0.088572 
-0.024065,0.051402,0.088145 
-0.023994,0.051402,0.088174 
-0.023894,0.051423,0.088074 
-0.023907,0.051440,0.088024 
-0.022998,0.051402,0.088911 
-0.020692,0.051402,0.088572 
-0.018687,0.051402,0.088572 
-0.020692,0.051302,0.088572 
-0.018687,0.051302,0.088572 
-0.016682,0.051302,0.088572 
-0.016682,0.051402,0.088572 
-0.016732,0.051402,0.088161 
-0.016682,0.051402,0.088174 
-0.016582,0.051419,0.088074 
-0.016610,0.051444,0.088002 
0.006319,0.051402,0.100111 
-0.011375,0.051315,0.100111 
0.007395,0.051400,0.100126 
-0.004063,0.051312,0.100111 
0.008964,0.051398,0.100149 
-0.015782,0.051402,0.088828 
-0.009446,0.051378,0.088747 
-0.013380,0.051302,0.088572 
-0.013380,0.051402,0.088572 
-0.011375,0.051402,0.088572 
-0.011375,0.051302,0.088572 
-0.009370,0.051302,0.088572 
-0.009440,0.051402,0.088145 
-0.009396,0.051402,0.088171 
-0.009370,0.051402,0.088754 
-0.009370,0.051402,0.088572 
-0.009470,0.051416,0.088075 
-0.006088,0.051323,0.088689 
-0.006799,0.051379,0.088717 
-0.006068,0.051402,0.088572 
-0.004063,0.051402,0.088572 
-0.002058,0.051302,0.088572 
-0.004063,0.051302,0.088572 
-0.006068,0.051302,0.088572 
-0.001958,0.051412,0.088074 
-0.002083,0.051402,0.088171 
-0.002108,0.051402,0.088161 
-0.002158,0.051412,0.088074 
0.001244,0.051402,0.088572 
0.001244,0.051302,0.088572 
0.003412,0.051302,0.088572 
0.005258,0.051402,0.088100 
0.005353,0.051307,0.088551 
0.005304,0.051402,0.088161 
0.005254,0.051409,0.088074 
0.005453,0.051408,0.088075 
0.008656,0.051396,0.088543 
0.008656,0.051402,0.088545 
0.008656,0.051262,0.088497 
0.009772,0.051265,0.088486 
0.016040,0.051314,0.100111 
0.048067,0.051393,0.100299 
0.023460,0.051318,0.100111 
0.028371,0.051320,0.100111 
0.023281,0.051401,0.088572 
0.023377,0.051308,0.088343 
0.023460,0.051308,0.088342 
0.027246,0.051320,0.088302 
0.025688,0.051315,0.088319 
0.025565,0.051315,0.088320 
0.025442,0.051314,0.088321 
0.025328,0.051314,0.088323 
0.025230,0.051314,0.088324 
0.027291,0.051301,0.088572 
0.034682,0.051323,0.100111 
0.040169,0.051326,0.100111 
0.048503,0.051330,0.100111 
0.048503,0.051402,0.100111 
0.048457,0.051302,0.100003 
0.030593,0.051401,0.088572 
0.033199,0.051339,0.088240 
0.034546,0.051343,0.088226 
0.033703,0.051340,0.088235 
0.033531,0.051340,0.088236 
0.033359,0.051339,0.088238 
0.034603,0.051301,0.088572 
0.034603,0.051343,0.088225 
0.037657,0.051401,0.090658 
0.034392,0.051319,0.088318 
0.037905,0.051401,0.088572 
0.037905,0.051301,0.088572 
0.040169,0.051301,0.088572 
0.041915,0.051301,0.088572 
0.041865,0.051401,0.088161 
0.041878,0.051366,0.088149 
0.041915,0.051401,0.088174 
0.045217,0.051401,0.088572 
0.045217,0.051301,0.088572 
0.052849,0.051401,0.088572 
0.052849,0.051301,0.088572 
0.022389,0.051387,0.100343 
0.010503,0.051302,0.088490 
0.010486,0.051268,0.088478 
0.010475,0.051302,0.088490 
0.010005,0.051266,0.088483 
0.010005,0.051302,0.088495 
0.012658,0.051402,0.088499 
0.012649,0.051302,0.088465 
0.012596,0.051401,0.088145 
0.012617,0.051401,0.088161 
0.012567,0.051405,0.088074 
0.012753,0.051422,0.088024 
0.015214,0.051325,0.088443 
0.015969,0.051285,0.088421 
0.015969,0.051378,0.088453 
0.016019,0.051301,0.088426 
0.015969,0.051401,0.088461 
0.016018,0.051285,0.088420 
0.017518,0.051301,0.088409 
0.017314,0.051289,0.088407 
0.017436,0.051301,0.088410 
0.017353,0.051301,0.088410 
0.017277,0.051301,0.088411 
0.017158,0.051301,0.088413 
0.017093,0.051301,0.088413 
0.020079,0.051402,0.088074 
0.020487,0.051401,0.088409 
0.019960,0.051401,0.088415 
0.019947,0.051301,0.088380 
0.019908,0.051401,0.088145 
0.019879,0.051402,0.088074 
0.019892,0.051401,0.088124 
0.019908,0.051426,0.088003 
0.023281,0.051401,0.088074 
0.016597,0.051301,0.088419 
0.023281,0.051359,0.088362 
0.023281,0.051401,0.088376 
0.027191,0.051401,0.088074 
0.027261,0.051401,0.088330 
0.027220,0.051401,0.088145 
0.027194,0.051401,0.088100 
0.027391,0.051401,0.088074 
0.028371,0.051401,0.088074 
0.030593,0.051401,0.088074 
0.030593,0.051341,0.088271 
0.030593,0.051401,0.088292 
0.034503,0.051401,0.088074 
0.034603,0.051385,0.088240 
0.034532,0.051401,0.088145 
0.034603,0.051401,0.088174 
0.034703,0.051401,0.088074 
0.034657,0.051401,0.088245 
0.037905,0.051401,0.088074 
0.037905,0.051401,0.088207 
0.038411,0.051355,0.088185 
0.040169,0.051360,0.088167 
0.041815,0.051401,0.088074 
0.042015,0.051401,0.088074 
0.045217,0.051401,0.088074 
0.045217,0.051401,0.088123 
0.045743,0.051378,0.088108 
0.052802,0.051401,0.088035 
0.080000,0.050401,-0.000000 
0.129999,0.090401,-0.000000 
0.129999,0.050401,-0.000000 
0.080000,0.090401,-0.000000 
0.080000,0.050401,-0.000000 
0.129999,0.050401,-0.000000 
0.080000,0.050401,-0.000000 
0.080000,0.090401,-0.000000 
0.129999,0.090401,-0.000000 
0.080000,0.090401,-0.000000 
0.043297,0.085572,0.107269 
0.047301,0.085588,0.107251 
0.043018,0.087578,0.104476 
0.047243,0.085995,0.106660 
0.047018,0.087593,0.104451 
0.043564,0.085573,0.107268 
0.047552,0.086010,0.106680 
0.043232,0.086025,0.106603 
0.043639,0.087580,0.104472 
0.047610,0.087595,0.104448 
0.026345,0.087676,0.084228 
0.026002,0.084591,0.080248 
0.026217,0.084505,0.080265 
0.027355,0.084307,0.080234 
0.025343,0.086596,0.082676 
0.025501,0.087595,0.084271 
0.025444,0.087645,0.084237 
0.025561,0.085693,0.081602 
0.025756,0.085593,0.081696 
0.025961,0.085506,0.081780 
0.025476,0.085744,0.081554 
0.025670,0.085638,0.081654 
0.025874,0.085543,0.081744 
0.027811,0.086874,0.084772 
0.039666,0.087521,0.084504 
0.026173,0.085430,0.081852 
0.026086,0.085461,0.081823 
0.027485,0.085813,0.081520 
0.032519,0.087725,0.084277 
0.041308,0.087614,0.084464 
0.033972,0.085859,0.081574 
0.033892,0.085858,0.081573 
0.026184,0.084364,0.079945 
0.026428,0.084362,0.079943 
0.026324,0.084362,0.079944 
0.026661,0.084360,0.079941 
0.026887,0.084358,0.079940 
0.026566,0.084361,0.079942 
0.026799,0.084359,0.079940 
0.027109,0.084356,0.079938 
0.027255,0.084355,0.079937 
0.027027,0.084357,0.079938 
0.027322,0.084355,0.079936 
0.025493,0.086364,0.082574 
0.025321,0.086492,0.082477 
0.025666,0.086253,0.082658 
0.025309,0.086503,0.082469 
0.027976,0.086515,0.082422 
0.028138,0.086514,0.082421 
0.030082,0.084333,0.079915 
0.025765,0.088085,0.085331 
0.025944,0.087950,0.085388 
0.025598,0.088232,0.085268 
0.025606,0.088225,0.085271 
0.026134,0.087829,0.085438 
0.027492,0.089482,0.088300 
0.027643,0.089481,0.088298 
0.027641,0.089489,0.088344 
0.027878,0.089470,0.088342 
0.028118,0.089467,0.088328 
0.027899,0.087472,0.085704 
0.042980,0.087710,0.084424 
0.031617,0.088965,0.087326 
0.025588,0.088150,0.085158 
0.026485,0.089020,0.087232 
0.026691,0.088925,0.087267 
0.026853,0.088866,0.087289 
0.026957,0.089287,0.087889 
0.027177,0.089229,0.087918 
0.027401,0.089184,0.087936 
0.028087,0.089131,0.087924 
0.028111,0.089382,0.088233 
0.028591,0.089476,0.088289 
0.028703,0.087484,0.085636 
0.041594,0.088354,0.102794 
0.044571,0.088443,0.102502 
0.044483,0.088465,0.102470 
0.044501,0.088465,0.102470 
0.045782,0.088475,0.102473 
0.048815,0.087923,0.103842 
0.038959,0.087159,0.104953 
0.040473,0.088344,0.102947 
0.040502,0.088324,0.102972 
0.039887,0.087908,0.103691 
0.039900,0.087906,0.103690 
0.040653,0.088380,0.102869 
0.040659,0.088356,0.102904 
0.043239,0.088369,0.102645 
0.038911,0.087499,0.104460 
0.040736,0.087098,0.104739 
0.041717,0.087375,0.104745 
0.041700,0.087362,0.104766 
0.041689,0.087338,0.104802 
0.041702,0.087309,0.104844 
0.041713,0.087300,0.104856 
0.041939,0.087551,0.104470 
0.040969,0.085431,0.107152 
0.042009,0.085383,0.107095 
0.040898,0.085229,0.107458 
0.040900,0.085222,0.107468 
0.040918,0.085199,0.107501 
0.041004,0.085171,0.107529 
0.042032,0.085215,0.107339 
0.040996,0.085284,0.107365 
0.041002,0.085283,0.107365 
0.041085,0.085250,0.107402 
0.041090,0.085200,0.107475 
0.043678,0.085229,0.107190 
0.043686,0.085477,0.107360 
0.044391,0.088405,0.102559 
0.044393,0.088398,0.102569 
0.044401,0.088384,0.102588 
0.044411,0.088375,0.102601 
0.044503,0.088352,0.102633 
0.043887,0.087944,0.103772 
0.043902,0.087943,0.103772 
0.044589,0.088397,0.102568 
0.045105,0.087947,0.103793 
0.044444,0.087944,0.103781 
0.043340,0.087957,0.103769 
0.045824,0.087942,0.103803 
0.046508,0.087938,0.103811 
0.049529,0.085595,0.107242 
0.046602,0.087937,0.103813 
0.047817,0.087929,0.103829 
0.049268,0.085824,0.106585 
0.048073,0.087928,0.103832 
0.048788,0.087923,0.103841 
0.048963,0.087922,0.103844 
0.049683,0.087917,0.103853 
0.049705,0.087826,0.103811 
0.044840,0.085245,0.107133 
0.044851,0.085482,0.107317 
0.044904,0.085214,0.107177 
0.044900,0.085462,0.107346 
0.045003,0.085477,0.107324 
0.045811,0.085580,0.107259 
0.046170,0.085554,0.107231 
0.046259,0.085582,0.107257 
0.048145,0.085589,0.107249 
0.048962,0.085592,0.107245 
0.049004,0.085593,0.107245 
0.049497,0.085595,0.107242 
0.049382,0.085594,0.107243 
0.049274,0.085594,0.107243 
0.048862,0.087396,0.104300 
0.051348,0.087599,0.104420 
0.039332,0.087460,0.104445 
0.042001,0.087547,0.104470 
0.040920,0.086061,0.106588 
0.041958,0.085995,0.106557 
0.040903,0.085905,0.106466 
0.041964,0.086075,0.106620 
0.041945,0.085839,0.106435 
0.042561,0.087964,0.103760 
0.046477,0.087938,0.103811 
0.047868,0.087601,0.104398 
0.047885,0.087355,0.104227 
0.049605,0.087601,0.104437 
0.047830,0.085588,0.107250 
0.049082,0.085819,0.106564 
0.048864,0.087382,0.104324 
0.048274,0.085590,0.107248 
0.049016,0.085571,0.106911 
0.049108,0.085638,0.106826 
0.049202,0.085615,0.106871 
0.049214,0.085597,0.106898 
0.049215,0.085594,0.106903 
0.049108,0.085593,0.107244 
0.049164,0.085534,0.106982 
0.052328,0.070994,0.114106 
0.052474,0.070994,0.114135 
0.052618,0.070994,0.114177 
0.052216,0.071005,0.114194 
0.048931,0.072263,0.114064 
0.045004,0.071162,0.114181 
0.044993,0.071151,0.114060 
0.045354,0.071154,0.114182 
0.046032,0.071124,0.114003 
0.046041,0.071139,0.114183 
0.048940,0.071055,0.113953 
0.049000,0.071075,0.114189 
0.049638,0.071061,0.114190 
0.049703,0.071059,0.114190 
0.050939,0.071032,0.114192 
0.052167,0.071006,0.114194 
0.042091,0.069054,0.114130 
0.042103,0.069056,0.114129 
0.042201,0.068995,0.114112 
0.044219,0.068992,0.113915 
0.042080,0.068861,0.114114 
0.042103,0.068857,0.114110 
0.042125,0.066971,0.113935 
0.044245,0.065705,0.113611 
0.052913,0.068346,0.114050 
0.045978,0.069050,0.114115 
0.051012,0.068329,0.114066 
0.050306,0.069751,0.114191 
0.050296,0.069751,0.114190 
0.049799,0.069743,0.114159 
0.045005,0.069004,0.113861 
0.045957,0.068991,0.114111 
0.045396,0.066966,0.113947 
0.045400,0.066966,0.113947 
0.045027,0.066265,0.113608 
0.046066,0.066301,0.113556 
0.045036,0.065815,0.113566 
0.045088,0.065798,0.113561 
0.045103,0.065785,0.113559 
0.044931,0.065714,0.113563 
0.044933,0.065696,0.113561 
0.045005,0.065620,0.113550 
0.045129,0.065696,0.113549 
0.046070,0.065729,0.113503 
0.048745,0.065755,0.113460 
0.048970,0.066306,0.113770 
0.048973,0.066373,0.113519 
0.048877,0.065756,0.113461 
0.048897,0.065697,0.113456 
0.048901,0.065692,0.113455 
0.048977,0.065856,0.113471 
0.049001,0.065853,0.113471 
0.049002,0.065660,0.113454 
0.049061,0.065700,0.113458 
0.049524,0.066314,0.113783 
0.050102,0.066326,0.113786 
0.050524,0.066334,0.113788 
0.051028,0.068357,0.113770 
0.052201,0.068359,0.113844 
0.052349,0.068359,0.113862 
0.052495,0.068357,0.113891 
0.052639,0.068355,0.113933 
0.052778,0.068351,0.113986 
0.050974,0.068329,0.114066 
0.051044,0.066399,0.113589 
0.052762,0.070393,0.114175 
0.052897,0.070398,0.114240 
0.052901,0.069809,0.114186 
0.044205,0.070691,0.114073 
0.043851,0.070385,0.114079 
0.043883,0.070413,0.114078 
0.042107,0.069573,0.114176 
0.052635,0.070389,0.114125 
0.044995,0.070802,0.114027 
0.045002,0.070802,0.114027 
0.045019,0.070799,0.114026 
0.044896,0.070701,0.114024 
0.044896,0.070695,0.114024 
0.044901,0.070671,0.114021 
0.044886,0.070399,0.114245 
0.045096,0.070695,0.114011 
0.044906,0.070399,0.114245 
0.045017,0.070399,0.114245 
0.045109,0.070399,0.114245 
0.046035,0.070716,0.113965 
0.046050,0.070445,0.114241 
0.046036,0.070398,0.114237 
0.046047,0.070692,0.114220 
0.048702,0.070714,0.114218 
0.048942,0.070842,0.113933 
0.049018,0.071074,0.114189 
0.049000,0.070824,0.113932 
0.048840,0.070698,0.114220 
0.048677,0.070708,0.114219 
0.049027,0.070797,0.113930 
0.049143,0.070675,0.114222 
0.049061,0.070682,0.114221 
0.049210,0.070669,0.114222 
0.049027,0.070766,0.114214 
0.049502,0.070396,0.114215 
0.046004,0.069659,0.114170 
0.049496,0.070401,0.114215 
0.045032,0.066987,0.113863 
0.046068,0.067002,0.113800 
0.045021,0.067034,0.113679 
0.046073,0.066972,0.113919 
0.046060,0.067046,0.113625 
0.048965,0.067006,0.113769 
0.049365,0.066311,0.113782 
0.049904,0.066970,0.113906 
0.050002,0.066970,0.113908 
0.050393,0.066966,0.113922 
0.050656,0.066963,0.113930 
0.051039,0.067034,0.113647 
0.050603,0.066336,0.113788 
0.050728,0.066963,0.113932 
0.051025,0.066968,0.113908 
-0.201489,0.035344,-0.000566 
-0.201788,0.035344,-0.000592 
-0.201788,0.035344,-0.000592 
-0.201398,0.021939,-0.000965 
-0.201678,0.021939,-0.001072 
-0.201408,0.021939,-0.000936 
-0.201678,0.021939,-0.001072 
-0.201691,0.021939,-0.001037 
-0.201408,0.021939,-0.000936 
-0.200198,0.035343,-0.002226 
